# .PCD v0.7 - Point Cloud Data file format
VERSION 0.7
FIELDS x y z
SIZE 4 4 4
TYPE F F F
COUNT 1 1 1
WIDTH 1439
HEIGHT 1
VIEWPOINT 0 0 0 1 0 0 0
POINTS 1439
DATA ascii
0.36104912 -0.44313273 0.33906686
0.25973171 -0.43436295 0.44196153
0.26389837 -0.43136349 0.43268204
0.33971053 -0.43069899 0.35004532
0.34749177 -0.43078482 0.3486653
0.35409689 -0.43525013 0.34555596
0.26128086 -0.41937789 0.44037342
0.33958048 -0.42048892 0.35067898
0.34692025 -0.42121336 0.35009283
0.26074865 -0.41097528 0.44539225
0.34013182 -0.41088027 0.35010135
0.34680569 -0.41074672 0.34989887
0.26058209 -0.40342256 0.44641727
0.33996895 -0.40261206 0.34895283
0.34651941 -0.40024608 0.34842223
0.34590596 -0.39124155 0.34772748
0.34142011 -0.37974852 0.35182142
0.34663364 -0.38336608 0.35034716
0.33302683 -0.36926121 0.35971689
0.3395679 -0.37319571 0.35662615
0.32636496 -0.35943311 0.36711735
0.33421126 -0.36237106 0.36470717
0.31947452 -0.34971997 0.37039715
0.32666075 -0.35049021 0.37012661
0.31953308 -0.34204933 0.37002754
0.32674268 -0.34055951 0.36908364
0.33380228 -0.33739826 0.36675072
0.32581568 -0.33160675 0.36576921
0.33419472 -0.33013996 0.36282706
0.34176451 -0.32727233 0.35791409
0.3266719 -0.32456842 0.36214721
0.33184171 -0.32179359 0.35883135
0.340572 -0.32087728 0.35401767
0.34878126 -0.3199597 0.34888506
0.35511303 -0.31958702 0.34364837
0.33274561 -0.31492275 0.3547827
0.33852646 -0.31248364 0.35059834
0.34635103 -0.31084839 0.34545237
0.35427171 -0.31067011 0.34000731
0.3591902 -0.30797428 0.33347255
0.34524387 -0.30431083 0.34187299
0.35269207 -0.30311492 0.33679211
0.35880911 -0.30228961 0.33052403
0.36396614 -0.30107826 0.32236743
0.36809653 -0.29825959 0.31715751
0.23307712 0.43294424 0.46560156
0.23895171 0.42955911 0.45942742
0.24537486 0.42801803 0.45230186
0.25238508 0.42864779 0.44441146
0.2586903 0.42919573 0.43829411
0.2605767 0.43107465 0.43128341
0.22105321 0.44380802 0.47919941
0.22557299 0.43960378 0.47386491
0.22940555 0.43583491 0.46892273
0.21295504 0.45248955 0.48742336
0.2170991 0.44733676 0.48238593
0.30614001 0.45433614 0.39261174
0.3250196 0.45236972 0.3592732
0.20554341 0.46165937 0.49515367
0.20960629 0.45673046 0.49101979
0.31322151 0.45965424 0.37990469
0.31830823 0.46226314 0.37059629
0.32383484 0.46021995 0.36150765
0.19321294 0.47504506 0.50611645
0.19831848 0.47073174 0.50289273
0.20278037 0.46591994 0.49921817
0.19038804 0.48483348 0.51635998
0.19351421 0.47948286 0.51153934
0.19762051 0.47573251 0.50876796
0.18967886 0.48722583 0.5182544
0.36247951 -0.7178396 0.35323524
0.35984835 -0.71149153 0.35539997
0.35546696 -0.70105308 0.35975337
0.35109788 -0.68982798 0.36415082
0.34840304 -0.67991215 0.3665964
0.34645626 -0.66902173 0.36926788
0.34604359 -0.67134082 0.36327171
0.3451584 -0.6601913 0.37037915
0.34545416 -0.6600495 0.36336136
0.34551054 -0.65072548 0.37005913
0.34663421 -0.64995217 0.36287713
0.34832221 -0.6504209 0.35541856
0.349015 -0.64432997 0.36547124
0.25852126 -0.46111122 0.46059537
0.25406772 -0.44889888 0.46399152
0.25394371 -0.4480432 0.45686102
0.36702716 -0.44705763 0.33511758
0.36974993 -0.45165709 0.33071411
0.25612947 -0.44293317 0.46333581
0.25895792 -0.43922436 0.4566012
0.26719874 -0.43710077 0.45174617
0.27388313 -0.4362798 0.44806623
0.36018693 -0.43804845 0.34233034
0.3647655 -0.44212809 0.33902675
0.26037133 -0.43090022 0.45411748
0.25959659 -0.42925096 0.44940609
0.35396054 -0.42832929 0.34793735
0.35965562 -0.43088561 0.346008
0.25952074 -0.41977569 0.45411271
0.26124805 -0.42042056 0.44890529
0.35395661 -0.42020065 0.34988153
0.35906437 -0.422272 0.34829772
0.25878501 -0.40970066 0.45222187
0.26125693 -0.41269341 0.44848078
0.35317594 -0.41062507 0.36206532
0.35326117 -0.41046533 0.35081303
0.35746598 -0.41123572 0.34761477
0.25715029 -0.40121993 0.45318294
0.25965145 -0.40389806 0.4491542
0.35412502 -0.40112486 0.35004115
0.35702926 -0.40084064 0.34794384
0.25447369 -0.39164045 0.46038836
0.35399449 -0.39012855 0.35023111
0.35610259 -0.39326161 0.34754479
0.35285071 -0.3805511 0.35198939
0.33953881 -0.36601105 0.36270928
0.34682226 -0.37007484 0.35927069
0.35365558 -0.37246177 0.35668319
0.34082681 -0.35958964 0.3662622
0.34782329 -0.3623673 0.36413884
0.33404589 -0.34961656 0.36977786
0.34132841 -0.35070345 0.36888129
0.34772533 -0.35568172 0.36694705
0.33401269 -0.34428683 0.36932778
0.34000081 -0.34107968 0.36712861
0.34891784 -0.33940247 0.3632412
0.33990183 -0.33396444 0.36350805
0.34650201 -0.33177951 0.35908592
0.35385081 -0.33029008 0.35336417
0.35799477 -0.32735604 0.34874851
0.35262918 -0.32368255 0.34941363
0.35849985 -0.32183591 0.34475511
0.3559562 -0.31085712 0.34674346
0.35670215 -0.30405059 0.34490144
0.24009185 0.43274337 0.47314
0.24611177 0.4287647 0.46650952
0.25272733 0.42670473 0.45903343
0.25943354 0.42661875 0.45137334
0.26603937 0.42779282 0.44549453
0.22765465 0.44383678 0.48627633
0.23252009 0.43935591 0.48094279
0.23614733 0.43549559 0.47575641
0.22026779 0.45192951 0.49418396
0.22439444 0.4470365 0.48960948
0.30278182 0.44939446 0.40760958
0.30717641 0.45145792 0.40595567
0.21320833 0.46138221 0.50190806
0.21658608 0.45636588 0.49767166
0.30748749 0.45461658 0.3930881
0.31049797 0.45557222 0.39322746
0.20592089 0.4713338 0.50923294
0.20965815 0.46622556 0.5054158
0.19934948 0.48110113 0.51630831
0.2037615 0.47610381 0.51357669
0.19279042 0.49127573 0.52304274
0.19731732 0.48667836 0.52080107
0.18809782 0.50183225 0.53096616
0.19130217 0.49741459 0.52799463
0.18409204 0.51285207 0.53877711
0.18625963 0.50795305 0.53565532
0.18313307 0.51663125 0.5406785
0.36504596 -0.71788359 0.36133599
0.3656854 -0.72241622 0.35650194
0.36166337 -0.71095592 0.36212361
0.35803664 -0.70015037 0.36830497
0.35740799 -0.70247436 0.36320943
0.35423726 -0.68614388 0.37666023
0.35380399 -0.69081765 0.37000602
0.35135365 -0.67973757 0.37554628
0.35004383 -0.68150306 0.37012696
0.34896433 -0.67086762 0.37551206
0.3472448 -0.66073638 0.3766886
0.3478058 -0.65168315 0.38390607
0.34675628 -0.65090394 0.37692171
0.34746778 -0.64089632 0.37736577
0.34917074 -0.64211088 0.36862576
0.34830827 -0.63558406 0.37868416
0.25665772 -0.45611349 0.47754872
0.257936 -0.45803526 0.47006059
0.25648057 -0.44879314 0.47824287
0.25589275 -0.44961795 0.47129846
0.25794053 -0.44259009 0.47764367
0.25954568 -0.44046035 0.47111547
0.26554656 -0.43760657 0.46338463
0.27008629 -0.43633857 0.45480466
0.28030661 -0.43588561 0.44881535
0.28466111 -0.43789536 0.44566709
0.2708362 -0.4344027 0.46360224
0.27469856 -0.43381271 0.45722157
0.27882087 -0.43457878 0.4495638
0.3529923 -0.40872526 0.36250025
0.3494336 -0.39746019 0.37103087
0.35096896 -0.39946368 0.3673389
0.35106498 -0.39546919 0.36709148
0.34980172 -0.35678068 0.36729872
0.34978843 -0.35198057 0.36999297
0.34970164 -0.34996265 0.36800295
0.35152656 -0.34281892 0.36476099
0.26455748 0.42477104 0.46524012
0.267129 0.42434368 0.45992684
0.24703467 0.43232965 0.48012346
0.25356475 0.42777953 0.47305083
0.25930935 0.42547897 0.46584147
0.2650494 0.42516571 0.46002674
0.27403232 0.42807141 0.45222515
0.2826212 0.43180385 0.44598269
0.23513734 0.44339052 0.49286145
0.24021719 0.43845943 0.4873938
0.24016434 0.4355807 0.48072356
0.28979427 0.43701929 0.43822241
0.29378676 0.44065425 0.42953032
0.29829866 0.44443956 0.42144722
0.2276032 0.45201644 0.50094736
0.23157749 0.4470433 0.49648756
0.30132383 0.4462125 0.41934091
0.22053461 0.46162379 0.50845098
0.22425357 0.45658061 0.50473964
0.21380927 0.47172025 0.51530725
0.21755552 0.46674979 0.51231444
0.2073507 0.48208189 0.52209038
0.2112381 0.47721425 0.51955301
0.20103477 0.49317953 0.52828956
0.2046892 0.48839408 0.52623427
0.19354419 0.50401872 0.53382987
0.19865327 0.49966818 0.53261644
0.18558429 0.51441365 0.53967178
0.19261429 0.51033628 0.53815299
0.19942954 0.50611246 0.53772241
0.18649524 0.52133173 0.54351699
0.19177702 0.51784086 0.54250938
0.18162321 0.53315455 0.55023849
0.18594165 0.52952129 0.54801071
0.1819084 0.54038888 0.55380225
0.18622677 0.53653789 0.55180502
0.17807788 0.55486917 0.55900186
0.17966615 0.54959249 0.55782557
0.17795917 0.55972999 0.5605163
0.17902993 0.55575413 0.55936712
0.36391723 -0.7103743 0.36859334
0.35973865 -0.69900197 0.37406147
0.35668343 -0.6874218 0.38075739
0.35735232 -0.69123137 0.37724406
0.35436302 -0.68103671 0.3817938
0.35202944 -0.66922468 0.38962448
0.3518911 -0.67041129 0.38312596
0.35030457 -0.65892422 0.38903481
0.35028678 -0.66297871 0.38460171
0.34869146 -0.65000039 0.38980049
0.34734005 -0.64049757 0.39048886
0.34604132 -0.63128573 0.39747286
0.34640232 -0.63228619 0.38913059
0.34436733 -0.62393659 0.39974797
0.25869393 -0.45785239 0.48682773
0.25704587 -0.44962123 0.49187112
0.25724769 -0.44841447 0.48581606
0.25885853 -0.44355568 0.4922502
0.2607744 -0.44019973 0.48488998
0.2655642 -0.43653643 0.47769135
0.26879013 -0.43526584 0.46989405
0.27014652 -0.4343988 0.47768754
0.27378291 -0.43300954 0.47048742
0.27877098 -0.43325007 0.46215755
0.28112191 -0.43460011 0.45519304
0.26648206 0.42485598 0.46744347
0.25277489 0.43463653 0.49359697
0.25411242 0.4316721 0.48711437
0.26068908 0.4271459 0.47946143
0.26792601 0.4256978 0.4729706
0.27407974 0.4269858 0.46472126
0.28164536 0.43086651 0.45875323
0.28524846 0.43328428 0.4509601
0.24232931 0.44328433 0.49969113
0.247045 0.43817642 0.49447894
0.28922191 0.43571538 0.44797623
0.29225084 0.43820515 0.44127214
0.23487906 0.45235148 0.50724357
0.23903687 0.4473455 0.50353575
0.22837865 0.46210268 0.51451445
0.23203012 0.45718381 0.51130563
0.22177561 0.472507 0.52108347
0.22545484 0.46765295 0.518502
0.21510881 0.48349288 0.52754605
0.21907775 0.47868928 0.52529991
0.20747903 0.49465993 0.53274524
0.21278243 0.49004167 0.53187394
0.2073058 0.50059205 0.53717077
0.21289563 0.49615416 0.53663808
0.20128201 0.51214916 0.54263192
0.2051266 0.50771159 0.54121435
0.19357975 0.52440423 0.54693925
0.19895743 0.52007562 0.54669803
0.19409169 0.53087443 0.55098277
0.19962339 0.52650011 0.55067015
0.18702111 0.54329264 0.55546379
0.19192699 0.53950906 0.55490607
0.18691568 0.55058002 0.55875969
0.19289531 0.54600948 0.55836135
0.17957573 0.56291765 0.56168228
0.18530108 0.56012255 0.56153572
0.18042806 0.57152385 0.56458944
0.18562298 0.56843954 0.5644362
0.17549509 0.58144623 0.57295924
0.18019025 0.57887501 0.56943011
0.17604068 0.58918005 0.57403398
0.18026899 0.59085578 0.57039809
0.18230057 0.598306 0.56927168
0.18436179 0.61040646 0.56654572
0.34781498 -0.64051402 0.39938074
0.34641209 -0.63132161 0.40262973
0.25763243 -0.45540413 0.50620174
0.25863448 -0.45558545 0.49438667
0.25668019 -0.44841114 0.50660598
0.2574904 -0.44818124 0.49906701
0.25920522 -0.44346234 0.50650817
0.26146486 -0.44031081 0.49914277
0.26578584 -0.43674487 0.491431
0.26932544 -0.43532184 0.48455048
0.27074289 -0.43375191 0.49254274
0.27464241 -0.4326964 0.48440957
0.27870458 -0.43229797 0.47657222
0.2576614 0.43438035 0.49837983
0.26123765 0.43122903 0.49383706
0.26800883 0.42781955 0.48683172
0.27483463 0.42784402 0.47903365
0.28013197 0.42981032 0.47032279
0.28484723 0.43223172 0.46260327
0.24971582 0.44298562 0.50658852
0.25394499 0.43792742 0.50205439
0.24287347 0.45261815 0.51374012
0.24640475 0.44769832 0.51027787
0.23616004 0.46284318 0.52053541
0.23962151 0.45783433 0.51755393
0.2294708 0.4738777 0.52665317
0.23331462 0.46907073 0.5246079
0.22096373 0.48482969 0.53160512
0.22717659 0.48022506 0.53078806
0.22149587 0.49065325 0.536551
0.22699521 0.4861812 0.53543359
0.21551152 0.50218475 0.54224586
0.21912636 0.49752358 0.54069787
0.2080452 0.51436847 0.54683042
0.21301325 0.50999254 0.54630041
0.20807433 0.52072936 0.55084574
0.21344224 0.51628 0.5504511
0.20203526 0.53326291 0.55551124
0.20571294 0.52899545 0.55474025
0.20086184 0.54055679 0.55862004
0.19439504 0.55272418 0.5617156
0.1991394 0.54960918 0.56200314
0.19479127 0.56081259 0.56487989
0.20014906 0.55648655 0.56518292
0.18665248 0.57498479 0.56730247
0.19232319 0.57051361 0.56797618
0.17322762 0.58568066 0.58764368
0.18783931 0.58140844 0.57155842
0.19307363 0.57742709 0.57106435
0.17401589 0.58659351 0.58481711
0.1782552 0.593337 0.57792813
0.18682177 0.59042042 0.57453811
0.17989366 0.59807754 0.57560581
0.18524337 0.59912664 0.57574099
0.18563294 0.60748792 0.57207525
0.25823987 -0.45525041 0.52388144
0.25708941 -0.44801793 0.5209831
0.25745979 -0.44791356 0.51316565
0.2600207 -0.44126174 0.52023137
0.26131415 -0.43954629 0.51313847
0.26369542 -0.43746462 0.5052197
0.26586783 -0.43406901 0.5129779
0.26865786 -0.43342766 0.5057075
0.27498454 -0.43235418 0.49825227
0.28006983 -0.43122852 0.49182963
0.28353256 -0.43342471 0.48568481
0.26495826 0.43455929 0.50500715
0.26757658 0.43155396 0.50070643
0.27260923 0.42850891 0.49247271
0.27725959 0.42856923 0.48430783
0.25698611 0.4434745 0.5123201
0.26161468 0.43868303 0.50857174
0.25000358 0.45366773 0.51914096
0.25462854 0.44888204 0.51663828
0.24330129 0.46390453 0.525855
0.24803929 0.45922136 0.52367437
0.23470449 0.47446921 0.53005368
0.24146727 0.47025195 0.53012133
0.23584573 0.48079914 0.53551447
0.24111789 0.47642702 0.53479671
0.22970638 0.49273619 0.54157579
0.23339811 0.48812917 0.53970921
0.22201419 0.5041101 0.54644227
0.22731479 0.49989647 0.54569161
0.22203676 0.51062065 0.55049437
0.22811559 0.50645024 0.55014795
0.21610121 0.52267313 0.55546331
0.22013132 0.51842034 0.55441797
0.20740969 0.53538924 0.55914217
0.21422443 0.53042376 0.55919784
0.20945251 0.54185671 0.56287974
0.21337615 0.53788769 0.56275451
0.20785269 0.55058044 0.56576759
0.20192875 0.5629859 0.56863588
0.20652829 0.55953509 0.5688256
0.20214407 0.57044965 0.5719384
0.20807834 0.56604928 0.57196862
0.19502142 0.58401817 0.57509744
0.1999895 0.58019346 0.57494295
0.19563641 0.59077692 0.57838398
0.20065072 0.58656996 0.57868105
0.18774809 0.6029501 0.58144128
0.19344273 0.60027283 0.5815829
0.19542462 0.60596406 0.58467191
0.25843534 -0.45574638 0.5302068
0.25749189 -0.44833031 0.53443539
0.25752923 -0.44786033 0.52785832
0.25929928 -0.44042012 0.53481901
0.26019675 -0.4388943 0.5268895
0.26341367 -0.4354569 0.51956713
0.28730005 -0.43593806 0.50070757
0.26105648 -0.43449432 0.53338295
0.2641395 -0.43304914 0.5279268
0.26908538 -0.43199494 0.51999396
0.27535975 -0.4317182 0.51252252
0.28108871 -0.43179134 0.50491375
0.28473455 -0.43243331 0.49846476
0.26321375 0.44342196 0.51758301
0.26544338 0.43993518 0.51346219
0.25897408 0.45425418 0.52699506
0.26047486 0.45030263 0.52128959
0.25554273 0.46075079 0.52818066
0.25956047 0.45639548 0.52442878
0.25000101 0.47143859 0.53473336
0.25411731 0.46686685 0.53212023
0.24402866 0.48288426 0.54073334
0.24725066 0.47806406 0.53889453
0.23626609 0.49467224 0.54559368
0.24153292 0.49020597 0.54471862
0.23631783 0.50072885 0.54976767
0.24114951 0.49615765 0.54897451
0.23011683 0.51287371 0.55481499
0.23406245 0.50862336 0.55383164
0.22226524 0.52521968 0.55913585
0.22840796 0.52050793 0.55864441
0.22324732 0.53158492 0.56280607
0.2277412 0.52780992 0.56231397
0.21520765 0.54484504 0.56635088
0.22106184 0.54037333 0.56649697
0.21661846 0.55156666 0.56967193
0.22106743 0.54799616 0.56989872
0.21514988 0.56058013 0.57275403
0.20933336 0.57295662 0.57546616
0.21365313 0.56946081 0.57564551
0.20928003 0.58087885 0.57889843
0.21489981 0.57577741 0.57884896
0.20352496 0.59367973 0.58316404
0.20653215 0.58906943 0.58264554
0.20271045 0.60079235 0.58554971
0.20293267 0.60761631 0.58721679
0.25872114 -0.45466074 0.54614735
0.26110584 -0.4582189 0.54658657
0.25803843 -0.44859222 0.54896379
0.25787908 -0.44812354 0.54148519
0.25994027 -0.44090155 0.54845846
0.26036209 -0.43821058 0.54201138
0.26441026 -0.43305033 0.54104888
0.26909658 -0.43106616 0.53414792
0.27612233 -0.43027037 0.5267151
0.28141999 -0.43044236 0.51952618
0.28619981 -0.43332994 0.51022995
0.25330454 0.4740009 0.54020917
0.24965341 0.48269919 0.5465371
0.2516481 0.47794059 0.54306877
0.24724647 0.49081036 0.55027777
0.24396877 0.50130188 0.5554508
0.24512765 0.49684832 0.5522778
0.24004723 0.51256722 0.56296015
0.2406922 0.51037979 0.55885142
0.23738122 0.52051294 0.56343871
0.24142554 0.5158121 0.56291312
0.2306845 0.53464246 0.5672667
0.23413369 0.53021586 0.56698072
0.23052616 0.54062229 0.57042134
0.2228287 0.55452049 0.57359189
0.22787797 0.55041111 0.57381558
0.22418602 0.56123388 0.57696205
0.22859107 0.55728889 0.57712454
0.22180462 0.57049048 0.58017564
0.21737422 0.58286136 0.58395118
0.22027846 0.57781607 0.58293289
0.21212634 0.59423053 0.59089196
0.21468289 0.58937031 0.58810902
0.21027736 0.60010982 0.59106201
0.20862246 0.60821849 0.59043109
0.26108468 -0.45534256 0.56265152
0.26001194 -0.45491663 0.55581856
0.26015037 -0.44973227 0.56226194
0.25949293 -0.44808117 0.55630004
0.26182508 -0.44229063 0.56272793
0.26192358 -0.43899146 0.55580956
0.26580656 -0.43331081 0.55517137
0.26969773 -0.43081555 0.54833943
0.27655336 -0.42874771 0.54118758
0.28189883 -0.42936108 0.53347194
0.28496224 -0.43125957 0.52544361
0.24084972 0.52178043 0.5678547
0.23734254 0.53456753 0.57362092
0.23857731 0.52997446 0.57133442
0.2355759 0.54085755 0.57637304
0.23423022 0.55484539 0.58410996
0.23368639 0.55070478 0.57950437
0.2314553 0.5616383 0.58260947
0.2317846 0.55787742 0.58021903
0.22804575 0.57371628 0.5921126
0.22828503 0.57088268 0.58569854
0.22429277 0.58136946 0.59034514
0.22459812 0.57759964 0.58735842
0.21542403 0.59287524 0.59607071
0.21994221 0.58896339 0.59222889
0.26301417 -0.45617267 0.57035106
0.26260334 -0.44921979 0.56975234
0.26395458 -0.43935862 0.56977022
0.26418376 -0.43543655 0.56275088
0.2674315 -0.4334662 0.56944501
0.27046141 -0.43165123 0.56220156
0.27659225 -0.42801905 0.55519241
0.28124017 -0.42679858 0.54685628
0.26305634 -0.45476148 0.57941705
0.26279095 -0.448616 0.59120965
0.2646547 -0.44863698 0.58303422
0.26426163 -0.44903401 0.57648951
0.26655352 -0.43994042 0.58282411
0.26588374 -0.43805489 0.57718229
0.26766559 -0.43081146 0.58391917
0.26949549 -0.4315007 0.57584393
0.27454358 -0.42897913 0.56745827
0.27807856 -0.42501017 0.56187272
0.26391637 -0.4456372 0.59367478
0.26515305 -0.44408694 0.5922308
0.26687235 -0.44049308 0.58916926
0.26566988 -0.42873597 0.59387809
0.26672095 -0.42843223 0.58983046
0.20619658 0.17180127 0.69445503
0.20004843 0.29560623 0.69951665
0.19945894 0.29976276 0.70059013
0.19945443 0.31142962 0.69972384
0.20051061 0.32188231 0.69735622
0.20170112 0.33177471 0.69614059
0.20248918 0.34100217 0.69429231
0.20312464 0.34728691 0.69314611
0.20472769 0.39440984 0.6865871
0.20402339 0.39736024 0.68683892
0.1894723 0.47450122 0.71009266
0.18952242 0.48143965 0.70943832
0.18805121 0.48673481 0.71256077
0.203297 0.05030071 0.71192932
0.20513888 0.046806149 0.70741922
0.20440298 0.085166886 0.71147847
0.203389 0.088168964 0.71195304
0.20396845 0.1129704 0.71043181
0.20490456 0.1152813 0.70699179
0.20647885 0.1217383 0.70441931
0.20660475 0.13132375 0.70406121
0.20494522 0.14163685 0.70586073
0.20522253 0.1515909 0.70511234
0.20535693 0.16117884 0.70398581
0.20475319 0.17347251 0.71027011
0.20502523 0.17133328 0.70392257
0.2057406 0.17304172 0.69559181
0.20403968 0.18122429 0.70958412
0.20360677 0.18140289 0.70455253
0.19715212 0.19464944 0.71796799
0.20130086 0.19145021 0.7114116
0.20331827 0.18874589 0.70486611
0.19471602 0.23516688 0.72057956
0.19410177 0.244361 0.72119606
0.19463362 0.25209641 0.71931458
0.1958968 0.26130006 0.71670508
0.19615534 0.2656332 0.71281993
0.19769029 0.26926708 0.71608776
0.19737302 0.2722567 0.71273857
0.19825549 0.28371248 0.71629369
0.19762364 0.28109556 0.71257591
0.19846067 0.29045022 0.71575582
0.19813253 0.29147637 0.71152431
0.19925939 0.30124319 0.70893174
0.19905287 0.30318648 0.70202869
0.20018813 0.31017289 0.70720232
0.20061991 0.3143512 0.70295537
0.20122899 0.32052204 0.70829588
0.2015955 0.32139581 0.70169669
0.20127445 0.33151287 0.7085824
0.20266958 0.33091912 0.70070434
0.2007761 0.33903214 0.70979446
0.20327546 0.34055436 0.69971126
0.20406385 0.34656578 0.69662338
0.1976109 0.36213151 0.71759021
0.19760379 0.37301743 0.71756488
0.19794136 0.38161603 0.71668977
0.20090441 0.38465193 0.70686722
0.19794147 0.39157891 0.71665025
0.19973879 0.39190164 0.70975697
0.19788367 0.40144187 0.71675539
0.19890155 0.40266451 0.71181095
0.1970554 0.41250739 0.71699178
0.19829844 0.40955356 0.71329403
0.19421671 0.42469022 0.72109127
0.19523966 0.4349829 0.7160849
0.19163772 0.44291535 0.72279519
0.19339699 0.44067702 0.71960813
0.19055898 0.45485008 0.72454488
0.19014972 0.46067744 0.72255725
0.19036767 0.46521315 0.71968377
0.19145045 0.4720585 0.7171309
0.19116804 0.48414364 0.7220856
0.19049752 0.48120412 0.71701646
0.18880734 0.49194202 0.72137302
0.18755172 0.48877883 0.71632069
0.18729112 0.50008923 0.72403252
0.18864442 0.50956655 0.71985936
0.1882723 0.51253891 0.71567142
0.21106225 -0.23714191 0.7204268
0.21285723 -0.24160734 0.71625954
0.21162741 -0.21549231 0.71434939
0.2085699 -0.20720533 0.72151202
0.21093105 -0.21312889 0.71597874
0.20985395 -0.15453102 0.71358174
0.20868288 -0.1475209 0.71633559
0.20944133 -0.15216355 0.71455246
0.20479478 -0.13415335 0.72551948
0.20642053 -0.13952976 0.72167861
0.20354597 -0.12746066 0.72754025
0.20371602 -0.11851773 0.72681886
0.20435299 -0.10781991 0.72584784
0.20463119 -0.11078997 0.72350168
0.20352742 -0.098210797 0.72723669
0.20371923 -0.088395283 0.72674054
0.20462604 -0.079252571 0.72526592
0.20601541 -0.076319203 0.72121656
0.20580178 -0.070069179 0.72517633
0.20608224 -0.068246976 0.7208088
0.20771652 -0.068690196 0.71122611
0.20641463 -0.058663379 0.72041631
0.20721118 -0.054270592 0.71238595
0.20680504 -0.048759971 0.71906298
0.20747057 -0.051977169 0.71175164
0.2062327 -0.038662303 0.71947992
0.20668066 -0.029916804 0.71976602
0.20629846 -0.016158175 0.7184304
0.20544182 -0.0099833123 0.71992034
0.20521946 0.0038555637 0.72471964
0.20440808 0.001119867 0.72205424
0.20512676 0.010466646 0.72495055
0.20392686 0.012041256 0.72015488
0.20490736 0.022122391 0.72479582
0.20392793 0.02132063 0.72021788
0.20340033 0.032199811 0.72431678
0.20307013 0.030687058 0.71985936
0.2032645 0.040728364 0.7240485
0.20304283 0.042479582 0.71873796
0.20252426 0.051925212 0.72485006
0.20255245 0.050326221 0.71928769
0.20180771 0.061969142 0.72863013
0.20362011 0.071810111 0.72553396
0.20407026 0.080065571 0.72469974
0.20540781 0.0844201 0.71835899
0.20392354 0.091432862 0.72590899
0.20481235 0.090599403 0.71674502
0.2029686 0.10224739 0.72622442
0.20447825 0.10135072 0.71958387
0.20226406 0.11142689 0.72704947
0.20504212 0.11159514 0.71488756
0.20661558 0.11589585 0.7107572
0.20247087 0.12163958 0.72662318
0.20640458 0.12145758 0.71362358
0.20735262 0.11951174 0.70895803
0.20155475 0.13228726 0.72710997
0.20531017 0.13177952 0.71562535
0.20726955 0.13264856 0.70910639
0.20101565 0.14180805 0.72732842
0.20443557 0.14116868 0.71480262
0.20135507 0.15101714 0.72582841
0.20450929 0.15199514 0.71370274
0.20184708 0.16132899 0.72565448
0.20412475 0.16174446 0.71547282
0.20112532 0.17040403 0.72666693
0.2035796 0.17181955 0.71565747
0.19917512 0.18419881 0.73079324
0.20045687 0.1815936 0.72523481
0.20271258 0.18110806 0.71542442
0.19968231 0.19249725 0.7247597
0.20154184 0.19012997 0.71674043
0.19955401 0.20075929 0.72637296
0.20005961 0.21139936 0.7272687
0.19990283 0.22168493 0.72560775
0.19904195 0.23186351 0.72581565
0.1978008 0.24170022 0.72659016
0.19799392 0.2523903 0.72994
0.19653523 0.2508041 0.72505128
0.19801807 0.25950849 0.73000234
0.197533 0.26253447 0.72500718
0.19785488 0.2761609 0.72903311
0.19852194 0.27171335 0.72621047
0.1979453 0.2787531 0.72922134
0.19820371 0.28182212 0.72624707
0.19580537 0.28921983 0.72706157
0.19843425 0.29160854 0.72652763
0.19584714 0.30218214 0.72783697
0.19845895 0.30105659 0.72714633
0.19582306 0.30743313 0.72694552
0.19855806 0.31151628 0.72671735
0.1988821 0.32153389 0.72513348
0.19892514 0.33146811 0.72497857
0.19884236 0.34158137 0.7251721
0.19877563 0.35147712 0.72526616
0.19896853 0.36157525 0.72452199
0.19923833 0.37140676 0.72394741
0.19928548 0.38156739 0.72385764
0.19904602 0.3915337 0.72352582
0.19890966 0.40161517 0.72368437
0.19920516 0.41417462 0.72947001
0.19790897 0.41154134 0.72409433
0.19799092 0.42233875 0.72900361
0.19596072 0.42073938 0.72424114
0.19699572 0.432275 0.72816479
0.19453801 0.43041623 0.72383094
0.19506384 0.44172543 0.72766507
0.19329378 0.43695813 0.72336507
0.19507147 0.45127571 0.72797686
0.19592559 0.46035281 0.72671914
0.19645472 0.4645642 0.72596955
0.19833466 0.47271818 0.72849506
0.19566056 0.4712927 0.72461885
0.19530365 0.48166373 0.72720617
0.19397886 0.47698376 0.72337282
0.19347179 0.4917675 0.72859389
0.19271058 0.50106037 0.73009914
0.19602908 0.50756109 0.7306512
0.20790578 -0.37586194 0.7395705
0.2105985 -0.36574057 0.731152
0.20966239 -0.36100537 0.73327506
0.21079032 -0.35847679 0.73068321
0.20786591 -0.34652916 0.73710465
0.20779237 -0.33961436 0.73843503
0.20690428 -0.32969546 0.73945856
0.20718005 -0.28734648 0.73828423
0.20805314 -0.28138027 0.73662996
0.20807859 -0.26648805 0.73544401
0.20744559 -0.2577875 0.73585892
0.2088289 -0.25226995 0.73695695
0.21011837 -0.23761636 0.73301303
0.20951119 -0.23751622 0.72724605
0.21051963 -0.22904643 0.73308289
0.209323 -0.22797176 0.72805583
0.20994414 -0.21755606 0.73187172
0.20873906 -0.21977228 0.72779942
0.20871034 -0.20846385 0.731426
0.2073974 -0.19815096 0.73243719
0.20676959 -0.2020404 0.72572845
0.2069619 -0.18824819 0.73289013
0.20677727 -0.17844932 0.73247778
0.20646746 -0.16842702 0.7332837
0.20605211 -0.15847923 0.7341373
0.20579347 -0.14846735 0.73452967
0.20592444 -0.13835874 0.73416167
0.2062999 -0.1284492 0.73340589
0.20645817 -0.11843649 0.73269618
0.20693271 -0.10854755 0.73177195
0.20660156 -0.09834832 0.73259938
0.20636801 -0.088354602 0.73278368
0.20653693 -0.078653648 0.73303694
0.20659237 -0.073938072 0.72562462
0.20621224 -0.068365335 0.73439795
0.20669125 -0.06875217 0.72537094
0.20541742 -0.056244787 0.73865163
0.20591798 -0.059750501 0.73370308
0.2053604 -0.049757291 0.73863012
0.20558991 -0.04728679 0.73321837
0.20694324 -0.045981999 0.72468519
0.20580874 -0.038690295 0.73535824
0.20678842 -0.038743149 0.72502011
0.20585716 -0.028543059 0.73506796
0.20692751 -0.028782409 0.72465229
0.20586193 -0.018218528 0.73498219
0.20684828 -0.017293956 0.724792
0.20603216 -0.0082950704 0.73420179
0.20609172 0.0014021695 0.73455775
0.20606013 0.011625655 0.73443657
0.20592918 0.021632876 0.7337811
0.20545661 0.031441826 0.73473644
0.20328858 0.044097237 0.73836792
0.20600778 0.040394306 0.73474562
0.19893694 0.053587951 0.7453258
0.20134225 0.051994033 0.74154294
0.20645878 0.051756036 0.73428345
0.20275594 0.059997398 0.73866785
0.20619144 0.062593892 0.73398811
0.20657371 0.071736053 0.73309922
0.2067959 0.081638068 0.73234713
0.2064182 0.091669545 0.73274976
0.20580097 0.10174365 0.73339152
0.20590588 0.11160234 0.73333871
0.20598935 0.12156223 0.73294878
0.20522469 0.13164578 0.73353088
0.20101149 0.14304642 0.73288316
0.20538923 0.14158881 0.73372746
0.20116766 0.14776841 0.73299611
0.20546626 0.15168594 0.73327225
0.20565575 0.16160508 0.73265213
0.20104395 0.17482109 0.73350501
0.20586005 0.17113949 0.73292232
0.20113081 0.18055055 0.73341334
0.20709747 0.18201758 0.73327351
0.20568325 0.1915879 0.73238873
0.20560645 0.20149732 0.73239779
0.20559031 0.21149553 0.73244929
0.20553851 0.22165601 0.73244095
0.20556216 0.23157515 0.73246884
0.20525311 0.24162866 0.73261958
0.2004437 0.25425768 0.73175693
0.20547731 0.25123489 0.73291534
0.20082894 0.25947717 0.73207045
0.20594169 0.26198617 0.73279548
0.20568106 0.27168748 0.73197877
0.20558842 0.28147909 0.7315942
0.20578951 0.29151294 0.73158848
0.20591785 0.30152133 0.73151922
0.20577592 0.3115471 0.73152012
0.20577738 0.3215785 0.73161292
0.20583667 0.33157623 0.73154831
0.20570649 0.34153283 0.73158431
0.2056621 0.35153273 0.73169976
0.20573393 0.36160696 0.73163831
0.20563556 0.37160552 0.73172086
0.20098139 0.38516799 0.73118472
0.20556948 0.38141218 0.73214436
0.20114109 0.39165944 0.73157001
0.20573425 0.39152503 0.73245007
0.20064664 0.40203646 0.73109913
0.20595437 0.40147233 0.73254871
0.20047587 0.41151875 0.73124391
0.20612656 0.41156045 0.73257768
0.20091088 0.42187679 0.73176324
0.20668128 0.42131251 0.73265207
0.20059289 0.43115085 0.73142278
0.20635355 0.43164688 0.73239142
0.20036815 0.44084141 0.73099852
0.20605431 0.44169059 0.73207837
0.20017664 0.45073929 0.73020363
0.20574418 0.45165503 0.73167706
0.20010766 0.45742473 0.72973448
0.20519489 0.4616335 0.73144972
0.2011303 0.4731032 0.73105127
0.20560071 0.47091851 0.73277754
0.20120394 0.48132995 0.73248553
0.20673807 0.48179403 0.73381621
0.2007944 0.49133885 0.73227757
0.20654812 0.49167538 0.73324585
0.20055078 0.50160384 0.73180151
0.20672128 0.50183749 0.73262453
0.2010579 0.50882024 0.73195744
0.20693183 0.50987804 0.732903
0.21022044 -0.3775554 0.747329
0.20872407 -0.37787461 0.74219525
0.2099203 -0.36782557 0.74637717
0.20829122 -0.37008068 0.74227327
0.20922618 -0.35867414 0.74524814
0.20934072 -0.35649738 0.74354553
0.21009563 -0.34895301 0.74686062
0.20832486 -0.34756169 0.74201608
0.21025735 -0.3383812 0.74822205
0.20908378 -0.33874229 0.7418856
0.20892504 -0.32797277 0.74658275
0.2076797 -0.33229315 0.74166369
0.20928119 -0.31893608 0.74822527
0.20891823 -0.30836779 0.7498948
0.20774618 -0.29809245 0.74986422
0.20779993 -0.28784397 0.74846202
0.20779534 -0.28459659 0.74076563
0.20947991 -0.27836338 0.74814016
0.20817603 -0.27911431 0.74105895
0.20981458 -0.26824537 0.74795961
0.20891123 -0.26810259 0.74033558
0.20925824 -0.25820938 0.74723023
0.2076935 -0.25802094 0.74088633
0.20921783 -0.24875468 0.74746394
0.20874381 -0.24923334 0.73934513
0.20885397 -0.23855156 0.74791175
0.20953839 -0.23528165 0.73968613
0.21018507 -0.22848216 0.74680853
0.20983569 -0.22817603 0.73898554
0.21114074 -0.21851096 0.74568021
0.20955418 -0.21696576 0.74186647
0.21213476 -0.21129841 0.74556851
0.21127249 -0.20757163 0.74353659
0.21154825 -0.19847423 0.74287391
0.21206014 -0.18837304 0.74250048
0.21264772 -0.17833151 0.7412219
0.21285953 -0.16840275 0.74097759
0.21318828 -0.15853381 0.74081039
0.21289088 -0.14861305 0.74106729
0.2125421 -0.13848186 0.74120176
0.21252219 -0.12838885 0.74114513
0.2124754 -0.11839496 0.74150664
0.21241097 -0.10840689 0.74138254
0.21251942 -0.098422512 0.74117434
0.21243583 -0.088388935 0.7414515
0.21222125 -0.078309774 0.74148226
0.21235859 -0.068388134 0.7412318
0.20789467 -0.056257386 0.74081773
0.21327676 -0.058791373 0.74126875
0.20793718 -0.049836289 0.74091387
0.2138827 -0.047981124 0.74088508
0.2131808 -0.038345132 0.73997355
0.21356402 -0.028417226 0.73954695
0.21359082 -0.018317882 0.73947501
0.21414284 -0.0084769093 0.73912984
0.21447892 0.0015220903 0.73865968
0.21430899 0.011449471 0.73813903
0.2206652 0.013831619 0.73803329
0.21464548 0.021666761 0.7376219
0.22068356 0.020740986 0.73796451
0.21446465 0.031528473 0.7371943
0.22105351 0.032214697 0.73761904
0.20505926 0.046545245 0.74103791
0.21474002 0.041348174 0.73647881
0.2212507 0.041902088 0.73695618
0.20483889 0.050734404 0.74152708
0.21479642 0.05150352 0.73550808
0.22092475 0.051465616 0.73624253
0.21450941 0.061464906 0.73500508
0.22059634 0.061499748 0.73582876
0.21456631 0.071522087 0.73507833
0.22064938 0.071376011 0.73585236
0.214544 0.081296474 0.7350657
0.22067408 0.081735812 0.7357384
0.21438757 0.091598012 0.73494208
0.22067034 0.091615856 0.7355417
0.214507 0.10153362 0.73505366
0.22068082 0.10157126 0.7353971
0.21434362 0.11156514 0.73497272
0.22079828 0.1116097 0.73526657
0.21452677 0.12151745 0.73491627
0.22074372 0.12157547 0.73513478
0.21433209 0.13152623 0.73495579
0.22086185 0.13160606 0.73508489
0.21441256 0.14160241 0.7348882
0.22071865 0.1415499 0.73510218
0.21460252 0.15173082 0.73492849
0.22093122 0.15131423 0.73521197
0.21476756 0.1614594 0.73482472
0.22093825 0.16180079 0.73530519
0.21451768 0.17151915 0.73452789
0.22079739 0.17156221 0.73497146
0.214595 0.18148465 0.73422325
0.22084929 0.1816629 0.73465329
0.21425076 0.19153342 0.73399878
0.2208977 0.19176568 0.73431927
0.21414171 0.20152697 0.73405284
0.22110124 0.20157377 0.73415393
0.21408783 0.21157376 0.73416156
0.22112598 0.21156684 0.7340585
0.21414123 0.22159027 0.73411947
0.22110008 0.22155084 0.73401213
0.2141801 0.23161744 0.7338717
0.22118357 0.23150417 0.73384941
0.21428092 0.2416096 0.73372453
0.22119348 0.24150413 0.73375672
0.21421711 0.25155681 0.73370612
0.22123052 0.25151771 0.73363376
0.21431966 0.26155707 0.73355526
0.22135235 0.26148009 0.73347765
0.21434747 0.27159247 0.73333168
0.22125228 0.27153981 0.73341465
0.21445204 0.28160506 0.73317605
0.22132756 0.28153187 0.73335707
0.2144101 0.29153651 0.73304737
0.22132342 0.29145634 0.73329425
0.21408899 0.30154258 0.73285902
0.2209117 0.30155516 0.73305917
0.21404253 0.31157744 0.73280191
0.2209411 0.31151927 0.73295331
0.21438678 0.3215872 0.73294401
0.22128263 0.32142058 0.73305643
0.21442507 0.33149862 0.73290771
0.22135936 0.33158088 0.73301685
0.2142771 0.34129998 0.73273879
0.22114441 0.34181321 0.73286581
0.21429269 0.35171178 0.73269975
0.22113748 0.35145968 0.73283148
0.21443965 0.36152306 0.73275101
0.22136064 0.36148828 0.73294675
0.21441154 0.37155542 0.7328018
0.22130753 0.37146869 0.73290038
0.21431638 0.38158801 0.7329433
0.22135518 0.38145596 0.73284471
0.21430768 0.39155111 0.7329796
0.22136189 0.39151147 0.73278791
0.21431147 0.40150347 0.73292983
0.22137527 0.4015772 0.73271668
0.21434189 0.41149896 0.7328198
0.22134246 0.4115696 0.73265612
0.21443228 0.4215751 0.73286194
0.22140163 0.42144492 0.73275357
0.21469279 0.43160772 0.73292726
0.22171624 0.43156493 0.73290086
0.21475902 0.44165376 0.73291719
0.221287 0.44150084 0.73304141
0.2148315 0.45168638 0.73311484
0.22130089 0.45122585 0.73335052
0.21529658 0.46213612 0.73363161
0.22108002 0.46011364 0.73392612
0.21468651 0.47148505 0.73486555
0.22146322 0.47105753 0.73476148
0.21492104 0.48139539 0.73495156
0.22109979 0.48341095 0.73510826
0.21482629 0.49149272 0.73422945
0.22132848 0.49295226 0.73457795
0.2150787 0.50146604 0.73351252
0.22143073 0.5019688 0.734052
0.21476512 0.51183581 0.73352587
0.2213047 0.51127046 0.73391259
0.21748221 0.51818007 0.73417026
0.2213995 0.51869988 0.73431683
0.21516024 -0.3773053 0.75482011
0.22135645 -0.37793207 0.754197
0.21461968 -0.36840823 0.75449336
0.22134991 -0.36786202 0.75356323
0.21444638 -0.35858154 0.75382149
0.22132201 -0.35801789 0.75251311
0.2140408 -0.34813532 0.75407404
0.2215762 -0.34799343 0.75200653
0.21423493 -0.33864021 0.75327784
0.22176836 -0.33818671 0.75165266
0.21396388 -0.32835746 0.75294995
0.22150375 -0.32842723 0.75140607
0.21404335 -0.31847858 0.75264716
0.22153412 -0.31833249 0.75134766
0.21408084 -0.30831459 0.75281322
0.22164898 -0.30833453 0.75106549
0.21310528 -0.29827562 0.75266063
0.22145842 -0.29832777 0.7504108
0.21370988 -0.28848892 0.75193512
0.22189981 -0.28817937 0.74977547
0.2141106 -0.278799 0.75113386
0.22202739 -0.27823085 0.74943382
0.2143815 -0.26823542 0.75062656
0.22196953 -0.26838717 0.74913311
0.21444987 -0.25828063 0.75043762
0.22214329 -0.25831974 0.74870342
0.21390919 -0.24825862 0.75043309
0.22199588 -0.24823707 0.74836934
0.21353559 -0.23838735 0.75006807
0.22189827 -0.23827747 0.74792767
0.21384613 -0.22910112 0.74894422
0.22146918 -0.22828111 0.74733174
0.21394765 -0.22067559 0.74801558
0.22111319 -0.21836543 0.74674952
0.22125109 -0.20838124 0.74636567
0.22163309 -0.19835758 0.74601603
0.22818135 -0.19395074 0.74642497
0.22197591 -0.18847604 0.74538666
0.22817771 -0.18756574 0.74595946
0.22190751 -0.17837177 0.74471205
0.22812407 -0.17824443 0.74548423
0.22186665 -0.1684915 0.74431813
0.22797863 -0.16781795 0.74504685
0.22224741 -0.15853384 0.7439841
0.22804345 -0.1583607 0.74453735
0.22181906 -0.14832251 0.74385941
0.22801113 -0.14835317 0.74442798
0.22164433 -0.13849875 0.74379092
0.22813281 -0.13779947 0.74415118
0.2212534 -0.12834391 0.74366593
0.22832917 -0.12834486 0.74376029
0.22134902 -0.11836645 0.74369067
0.22837138 -0.11832796 0.74363017
0.22120421 -0.10839456 0.74368596
0.22828387 -0.10832044 0.74372756
0.22137508 -0.098436505 0.74350417
0.22840962 -0.098333165 0.74350548
0.22128047 -0.088475406 0.74339175
0.22845101 -0.08832933 0.74318361
0.22117774 -0.078493282 0.74326384
0.22840665 -0.078182295 0.74287236
0.22128831 -0.068705112 0.7424345
0.22810462 -0.068192273 0.74219275
0.22130106 -0.058507089 0.74161547
0.22828516 -0.058224726 0.74127483
0.2210371 -0.048713002 0.74098086
0.22827268 -0.048317235 0.74064404
0.22111997 -0.039187443 0.74016917
0.22803338 -0.038371716 0.73993218
0.22139563 -0.028694656 0.73967814
0.22802867 -0.028381672 0.73941994
0.22115399 -0.018809516 0.73944885
0.22808518 -0.018290322 0.73895091
0.22126757 -0.0094969682 0.73898798
0.22844611 -0.0083440579 0.73848367
0.22798029 0.0015019178 0.73818791
0.2351018 0.0037212074 0.73778319
0.22780474 0.011606481 0.73773861
0.23526262 0.011469923 0.73742521
0.2276839 0.021472283 0.73744911
0.23504144 0.021911014 0.73708469
0.22820307 0.031397432 0.73708671
0.23506047 0.032452777 0.73704135
0.228157 0.04155783 0.73650938
0.23493941 0.0421056 0.7363677
0.22807534 0.051408119 0.73613805
0.23479907 0.051355232 0.73608512
0.22807571 0.061542653 0.73609293
0.23477131 0.061581619 0.73609686
0.22811124 0.07171008 0.73609233
0.23479708 0.071689285 0.73607361
0.22805659 0.081457779 0.73594558
0.23480588 0.081628777 0.7360124
0.22823109 0.091606289 0.73584813
0.23478897 0.091282547 0.73593205
0.22816101 0.10160705 0.73574185
0.23477016 0.10150284 0.73592573
0.22811404 0.11151923 0.73554301
0.23482494 0.11173704 0.73577017
0.22837725 0.12158263 0.73529828
0.23493494 0.12150268 0.73550487
0.22834699 0.13155025 0.73513365
0.23501568 0.13173135 0.73523366
0.22787099 0.14158309 0.73503602
0.23506589 0.14162165 0.73507154
0.22789808 0.15156195 0.73498362
0.23527522 0.15160529 0.73481095
0.22793953 0.1615907 0.73492372
0.23528169 0.16158326 0.73463261
0.2280573 0.17163979 0.73456466
0.23532008 0.17147125 0.73442942
0.22809589 0.18154648 0.73439515
0.23542325 0.18146215 0.73421818
0.22836787 0.19132169 0.73415953
0.23532669 0.19166471 0.73395097
0.22827587 0.20163248 0.73396373
0.23508529 0.2015049 0.73376876
0.22831303 0.21151255 0.73390335
0.2351305 0.21159048 0.73370159
0.22825958 0.22152331 0.73385495
0.2350996 0.22158794 0.73366898
0.22837418 0.23156562 0.73371947
0.23514424 0.23152752 0.7335698
0.22840723 0.24159129 0.733459
0.23519975 0.24152869 0.73330957
0.22847028 0.25156459 0.73334378
0.23526737 0.25155029 0.73321563
0.2284994 0.26151145 0.73329943
0.2352791 0.2616154 0.73321646
0.22850434 0.2715438 0.73321652
0.23525803 0.27154946 0.73314762
0.22850692 0.2815744 0.73313826
0.23525922 0.28150305 0.73303366
0.22852275 0.29150829 0.73312193
0.23529555 0.29158872 0.73298466
0.22856891 0.30158529 0.73295277
0.23528607 0.30150017 0.73296046
0.22860393 0.31165332 0.73280627
0.23536576 0.31146997 0.73282391
0.22853389 0.32160783 0.73288131
0.23530731 0.32156077 0.73276252
0.22856675 0.3315571 0.73282826
0.23535004 0.33160394 0.73264831
0.22865506 0.34157389 0.73266006
0.23543999 0.34152007 0.7324748
0.2285597 0.35157666 0.73263872
0.23547478 0.35146672 0.73239535
0.22853307 0.36147964 0.73277062
0.23538037 0.36142534 0.73242313
0.2285926 0.37158275 0.73269117
0.23546565 0.37153134 0.73234332
0.22853608 0.38156146 0.73258829
0.23548649 0.38159749 0.73220676
0.22859021 0.39151943 0.73252249
0.23548718 0.39150265 0.73207599
0.22823982 0.40151089 0.73226178
0.23514955 0.40162858 0.73183799
0.22819714 0.4115119 0.73208153
0.23524804 0.41163087 0.73156333
0.22819902 0.42148718 0.73215538
0.23517717 0.42153901 0.73151565
0.22810955 0.43151096 0.7322666
0.23524483 0.43154421 0.73151135
0.22813402 0.44205779 0.73259151
0.23530407 0.44116911 0.73216259
0.22922646 0.45211139 0.73367316
0.23491274 0.44882649 0.7335766
0.22850733 0.46143952 0.735111
0.22836746 0.47160354 0.73517466
0.22871663 0.48155552 0.73510414
0.2289535 0.49146563 0.73498493
0.22935821 0.5015558 0.73472184
0.22942926 0.51161069 0.73450029
0.22931571 0.52107865 0.73485571
0.23274048 0.52745014 0.73574293
0.23585653 -0.3941285 0.75286138
0.22155027 -0.38381177 0.75571311
0.22949022 -0.38688272 0.75368476
0.2355182 -0.38838464 0.7529633
0.22794043 -0.3784577 0.75365913
0.23553587 -0.37819886 0.75289559
0.22774027 -0.36844641 0.75298488
0.23530717 -0.3684538 0.75238609
0.22806856 -0.35838535 0.75248128
0.23537181 -0.35823143 0.7522614
0.2284438 -0.34855607 0.75209785
0.23536845 -0.34808296 0.75197005
0.22845161 -0.33838823 0.75167692
0.23513924 -0.33835623 0.75155783
0.22838533 -0.3285574 0.75134218
0.23508415 -0.3281084 0.75120491
0.22823922 -0.31843746 0.75104642
0.2349246 -0.31833366 0.75091612
0.22818519 -0.30862698 0.75071919
0.235074 -0.30810598 0.75045121
0.22809143 -0.29843199 0.75017238
0.23534666 -0.29836714 0.75000405
0.22794698 -0.28862891 0.74963701
0.23505664 -0.2883794 0.74951655
0.22853667 -0.27841151 0.74924803
0.23513342 -0.27841824 0.74923468
0.22859274 -0.26833406 0.74899447
0.23524876 -0.26836771 0.74907064
0.2283228 -0.25857538 0.748734
0.2348863 -0.25825879 0.74887168
0.22827743 -0.24837059 0.74847376
0.2349336 -0.24836341 0.74856806
0.22827595 -0.23892361 0.74810243
0.23485453 -0.23831236 0.74813527
0.22820839 -0.22837484 0.74755681
0.23477218 -0.22846538 0.74764264
0.22799206 -0.21877903 0.74709237
0.23453383 -0.21836248 0.74723673
0.22795697 -0.20895511 0.74694842
0.23497365 -0.20832357 0.74702454
0.22802098 -0.20140186 0.74678493
0.23527275 -0.19843897 0.74658316
0.23556983 -0.18840662 0.74603736
0.23559192 -0.17851031 0.74559247
0.24205898 -0.17514992 0.7455284
0.23538588 -0.16848178 0.74501246
0.24213463 -0.16787146 0.7450105
0.23529808 -0.15845862 0.74444687
0.24199083 -0.15838058 0.74456614
0.23507045 -0.14856578 0.74415088
0.24228223 -0.14750065 0.74404949
0.23526411 -0.13847344 0.74372178
0.24241345 -0.13837871 0.74368757
0.23570827 -0.128359 0.74341697
0.24245977 -0.12843367 0.74350417
0.23555495 -0.11858641 0.74335313
0.2423639 -0.11808948 0.74322522
0.23533739 -0.10838984 0.74324816
0.24233322 -0.10842223 0.74287307
0.23534678 -0.098373801 0.74296868
0.24240901 -0.098412827 0.74243307
0.23499259 -0.088381723 0.74253523
0.24210206 -0.08842279 0.74203348
0.23514239 -0.078458324 0.74216259
0.24246244 -0.078231841 0.74154949
0.2349834 -0.068447471 0.74165809
0.24260415 -0.068430588 0.74103248
0.23507106 -0.058608744 0.74094146
0.24237788 -0.05840091 0.74042249
0.23526201 -0.048803184 0.74016666
0.2422155 -0.0482351 0.73974925
0.23509611 -0.03889728 0.73951316
0.241989 -0.038249474 0.73922575
0.23505385 -0.028227378 0.73906809
0.24201529 -0.028435182 0.73877335
0.23492314 -0.020536225 0.73871565
0.24185233 -0.018383961 0.73836124
0.24236228 -0.0084146746 0.73801261
0.24255933 0.0015987903 0.7376914
0.2426369 0.011586703 0.73740041
0.24242748 0.021570686 0.73714
0.2492718 0.02447471 0.73695719
0.24247029 0.031635247 0.73664027
0.24936537 0.031406693 0.7367481
0.24198781 0.041270718 0.73646134
0.24899329 0.042380232 0.73593587
0.24208464 0.05146822 0.73620313
0.24939115 0.050348274 0.73554003
0.24239936 0.061331153 0.73615813
0.24933164 0.061831336 0.73633361
0.24226987 0.071715593 0.73608077
0.24916513 0.071096204 0.73592257
0.24213968 0.08178214 0.73601961
0.24920891 0.081521019 0.73579276
0.24213429 0.091613002 0.73598719
0.24919243 0.091942206 0.73577791
0.24209532 0.10149125 0.73592722
0.24924748 0.10187665 0.73562866
0.24211568 0.11151181 0.73577118
0.24925007 0.11180408 0.73557949
0.24202447 0.12144084 0.73545367
0.24904497 0.12219861 0.73521078
0.24199124 0.13147582 0.73514867
0.24903168 0.13169634 0.73487604
0.24252738 0.14143796 0.73480272
0.24921121 0.14180943 0.73448789
0.24257481 0.15135002 0.73456103
0.24963652 0.15193444 0.73430616
0.24228473 0.16149494 0.73430192
0.24942343 0.16164482 0.73399734
0.24236746 0.1715731 0.73405522
0.24950148 0.17162348 0.73380363
0.24245678 0.18162198 0.73395061
0.24952276 0.18158053 0.73371851
0.24252164 0.19164798 0.73372757
0.24958427 0.19155964 0.73355675
0.24260236 0.20161419 0.73351145
0.24964459 0.20154215 0.73339695
0.24261694 0.21153846 0.73345256
0.24961223 0.21159686 0.73333275
0.24257667 0.2215181 0.73341143
0.24962692 0.22162846 0.73334146
0.24257171 0.23144159 0.73336089
0.24958088 0.23167746 0.73326373
0.24215405 0.24152403 0.733181
0.24916954 0.24158736 0.73309398
0.24215117 0.25159562 0.73311287
0.24916033 0.25161207 0.73304999
0.24233434 0.26164743 0.73308337
0.24931939 0.26147369 0.73299098
0.24243431 0.27126989 0.73303092
0.24937452 0.27182096 0.73293686
0.24214877 0.28152055 0.73292875
0.24920841 0.28155565 0.73284203
0.24218924 0.29160774 0.73283285
0.24925385 0.29153967 0.73271084
0.24223159 0.30153957 0.73276514
0.24930497 0.30153218 0.7325685
0.24228631 0.31150019 0.73264289
0.24937935 0.3115513 0.73238152
0.24231839 0.32156035 0.73247635
0.24939789 0.32148197 0.73221368
0.24239813 0.33155453 0.73230505
0.24952321 0.33143359 0.7320174
0.24235801 0.34148008 0.73206657
0.24950285 0.3416352 0.73177725
0.24197696 0.3515434 0.73199594
0.24913432 0.35154071 0.73163819
0.24197669 0.36139378 0.73195338
0.2491345 0.36159721 0.7315349
0.24201412 0.37150472 0.73188519
0.24922071 0.37168673 0.73138326
0.24204734 0.38168013 0.73172474
0.24924876 0.38167357 0.73128504
0.24210306 0.39160758 0.7315712
0.2492853 0.39167356 0.73117012
0.24217916 0.40156808 0.73137683
0.2493185 0.40157455 0.7310012
0.24224697 0.41152167 0.73119903
0.24943091 0.41149658 0.73080266
0.24225123 0.42153454 0.73106062
0.24948983 0.42153797 0.73064494
0.24249844 0.43197647 0.73127353
0.24934809 0.43136859 0.73123616
0.24356036 0.44193619 0.73379385
0.24893598 0.43762857 0.73318273
0.23553681 0.45465007 0.73578292
0.24125157 0.4512077 0.73635191
0.23562333 0.46160147 0.73607397
0.24149312 0.4615308 0.73707902
0.23557824 0.47099322 0.73583788
0.24191068 0.47156605 0.73667324
0.24167742 0.4815354 0.73612803
0.24173079 0.4915815 0.73600888
0.241722 0.50156838 0.73590851
0.24195677 0.51158446 0.73552871
0.23546623 0.52450043 0.73548114
0.24198344 0.52152085 0.7354762
0.2357741 0.52842104 0.73600852
0.24320792 0.53039658 0.73600662
0.24387836 -0.39655808 0.75305593
0.24974139 -0.39791718 0.75291979
0.24252775 -0.38837925 0.75298709
0.24955316 -0.38810346 0.75255913
0.24251147 -0.37838793 0.75259459
0.24962761 -0.3783147 0.75218558
0.24264769 -0.3683278 0.75229633
0.24970441 -0.3682982 0.75206238
0.24247102 -0.35833207 0.75210714
0.24947383 -0.35845199 0.75185573
0.24237518 -0.34838265 0.75192404
0.24933733 -0.34823999 0.75170964
0.24241196 -0.33841571 0.75161904
0.24938576 -0.3383795 0.75147873
0.24247612 -0.32837594 0.75136948
0.24951656 -0.32825398 0.75128555
0.24250044 -0.31838056 0.75114137
0.24939741 -0.31798446 0.75109714
0.24248962 -0.30854031 0.75068122
0.24916415 -0.30845669 0.75077045
0.24296369 -0.29841954 0.75042409
0.24923204 -0.29836455 0.75063843
0.24287115 -0.28872585 0.75002348
0.24906926 -0.28809053 0.75027728
0.24274229 -0.27844194 0.74971724
0.24907683 -0.27833563 0.74988973
0.24286632 -0.26838893 0.74949956
0.2496493 -0.26813453 0.74956739
0.24254476 -0.25855553 0.74917459
0.24942861 -0.25819495 0.74916553
0.24258296 -0.24862987 0.74870753
0.24943425 -0.24828026 0.74872482
0.24239223 -0.23834637 0.74824059
0.24927808 -0.23841617 0.74834138
0.24251889 -0.22833154 0.74790484
0.24939372 -0.228374 0.74799657
0.24218018 -0.21854451 0.74758554
0.24914427 -0.21834069 0.74755812
0.24264506 -0.20879596 0.74723399
0.24928723 -0.20834631 0.74716854
0.2426381 -0.19916022 0.74675715
0.24917968 -0.19820601 0.74660981
0.24933158 -0.18843079 0.74600238
0.24938948 -0.17849107 0.74552625
0.25632718 -0.17528145 0.74500412
0.24909578 -0.16839018 0.74512845
0.25638494 -0.16888297 0.74486971
0.24934463 -0.158406 0.74480212
0.25631362 -0.15840168 0.74495262
0.24973191 -0.14851186 0.74454546
0.25642601 -0.14807403 0.74470085
0.25008103 -0.13845895 0.74412328
0.25642318 -0.13831545 0.74419999
0.24984832 -0.12866454 0.74368304
0.25612301 -0.12748954 0.74370444
0.24932705 -0.11861862 0.74315596
0.25659373 -0.11819628 0.74273688
0.24937077 -0.10850079 0.74250776
0.25661042 -0.10847817 0.7421819
0.2490579 -0.098494276 0.74202037
0.25634849 -0.098507434 0.74159551
0.249119 -0.088646859 0.74153543
